ply
format ascii 1.0
element vertex 760
property double x
property double y
property double z
end_header
-15.930542755940362 -183.976535824477679 -1464.742936749566979
-15.832092736311839 -176.250223206082580 -1527.792523887769676
-15.922411989875027 -183.034434679961322 -1472.686953438376577
-16.042647803900643 -182.384554418817885 -1475.380766046569534
-16.700130780909721 -170.818888336660166 -1500.610488167822268
-16.401137097994184 -181.353915778381008 -1487.638025430625248
-16.648079490909630 -164.319559876742829 -1463.937238173218930
-15.431093112670071 -171.514863260101237 -1525.232470661680054
-16.749763810243710 -159.802833827114682 -1450.491639335338277
-16.432676815118512 -166.849098757323986 -1472.461443898672314
-14.650262228043944 -168.031190327150796 -1416.320375324991801
-16.761953628603067 -161.050165818396579 -1453.398080386990841
-16.392916385813663 -180.934958205981559 -1480.949899915642163
-16.540864743678085 -171.260921378880056 -1489.428326373189748
-14.722942214080891 -170.028596540263322 -1419.495520452310529
-15.065987918557697 -173.643495787784161 -1530.426450160165132
-16.125962913796588 -157.501555043175671 -1429.584947315227282
-16.156240354098429 -179.606484387697577 -1526.070962503249120
-14.830693552097411 -174.898154631052591 -1533.154251316484761
-16.549687601233700 -171.534207130938995 -1486.665249881285717
-16.709993203400728 -162.687981957020639 -1458.047027115921765
-16.696743219175364 -163.872045461283989 -1462.261919775093702
-16.648327074483106 -178.914404998722290 -1506.415605771900346
-16.562603736142925 -178.823226561089001 -1510.640255020105087
-16.481585385848081 -168.319570802030512 -1476.454970619175356
-14.720156718050614 -166.844938378356943 -1413.883588080760774
-15.973560154214820 -184.063050472178901 -1452.552272112293849
-16.427236750821841 -167.026510502671812 -1473.558906934364586
-15.801728934636927 -176.385034223017101 -1424.718062311022550
-15.118158719961864 -157.479675260977416 -1420.232432890236623
-15.736331486606133 -179.829969674749151 -1530.880310003266914
-16.633223091783236 -178.960100133942802 -1504.860607147413702
-16.460642111745166 -178.967248727713667 -1513.454230327801952
-15.122349303886629 -173.115174302551765 -1529.455985754359062
-16.579950459915455 -157.838728244704924 -1439.144277902439171
-16.506838275379657 -176.963276933117527 -1520.328918584371650
-15.863977880407081 -183.721159152492390 -1467.736905786745638
-16.370499614324480 -181.241498209238301 -1484.713242536534153
-15.919934394658735 -170.056453124288225 -1519.097867429492226
-14.484562981667214 -161.042304477883761 -1410.588569913639276
-14.527780598270093 -164.213834104205944 -1410.845587035172230
-16.492698589211578 -178.622048771829157 -1515.219192173645524
-16.747109959794738 -159.919132057477867 -1451.621720511225021
-14.672986284692493 -167.198962390326272 -1414.868385936402092
-16.536887244302495 -168.872659149294549 -1478.102781741665240
-16.536677424277077 -177.261238600479658 -1519.343195482678766
-16.511772731794768 -170.584727062424093 -1483.275103039690066
-16.435059595508079 -180.663548945640741 -1494.598842490747074
-16.622346274721949 -178.996933937348189 -1503.925860147631056
-15.799097419100599 -157.310082416617576 -1426.450469950872275
-16.470485005322203 -180.378827924695713 -1495.665141515918776
-15.979436808426890 -184.106625175368777 -1453.597919621456413
-16.515838929970606 -171.063197968582386 -1488.276152543485978
-14.436432390777460 -162.870131246574715 -1409.903572514504049
-16.370446523511784 -179.111952366700280 -1514.378758398614764
-16.497951187270605 -180.136953949566760 -1496.524576295478255
-15.853258383120426 -183.446693036495788 -1471.683155271831538
-16.541429959135368 -177.594402849541041 -1518.394275530792356
-15.988485156894344 -176.437855534500585 -1526.421869970892658
-16.373222986762478 -181.300942452622252 -1482.026603418909872
-16.353376805502368 -181.532585334831111 -1490.770642835217586
-16.335044300890321 -181.794060210743538 -1488.618422241867165
-16.625316733364610 -178.997930907426337 -1507.319016271407008
-16.737493774940376 -160.166163460913339 -1452.385797590855418
-16.445882918900647 -167.400030100758244 -1475.186562804266487
-14.831589833234810 -171.540190426185688 -1421.422832753151397
-15.889027898842533 -184.035552171789050 -1459.082961413277872
-16.484667311253961 -178.988733946728502 -1512.014383442505050
-16.325919943064619 -181.803147345284515 -1489.774905367102519
-16.358353929833683 -157.381198006408198 -1433.329962508656763
-16.518304082130452 -165.082710982192651 -1467.722406495894120
-16.345094254432006 -181.639715884035155 -1486.862793402507805
-14.713332286045825 -170.328392375827775 -1420.160774451170482
-15.749808536866976 -180.239927619157186 -1530.271253166218685
-15.871761635477752 -184.324846391051267 -1463.489610706240455
-15.544854086688588 -180.516861844976916 -1531.933067009713113
-15.963059875068835 -183.758526151123618 -1447.887636516141356
-16.549887957715839 -179.476342760788782 -1500.080566119246214
-16.156595997866575 -179.336431389491906 -1526.699088807731187
-16.477766143346205 -165.200085748467700 -1468.824542462294175
-16.298852321006468 -179.267442235207454 -1524.659934514552106
-16.514627798480841 -178.216763638417035 -1516.592304817445211
-16.474349934398333 -177.003779195025544 -1521.133175347802535
-16.443731964288769 -165.487923151515986 -1469.896911994166430
-15.857985391594458 -184.361337848471010 -1462.112974405746172
-15.828779814056103 -176.934130637130863 -1425.956434738056032
-16.497007143206442 -169.493346082020935 -1480.995435700102007
-16.365337078798120 -181.568849647245088 -1483.555068790734140
-15.916789427400442 -184.101243658863552 -1455.912534241485901
-16.505509892723655 -170.685292408253758 -1493.304234598072526
-16.592469630183089 -157.909305940369734 -1441.492040692119645
-16.631594656523276 -170.762511241885903 -1497.766846818834892
-16.560177995919172 -179.074760728138699 -1509.225823016491859
-16.169168960632945 -181.899739438033066 -1478.972190322760525
-15.855521899041491 -184.331669764383861 -1460.912519232931345
-15.537851186004145 -180.093250259945478 -1532.445571734916484
-16.322266818831881 -179.473819779375191 -1512.883313394360812
-16.660629796825969 -162.518969907219571 -1459.555736957207273
-16.025658403419595 -182.616913700464210 -1476.385090022439272
-16.488264721634337 -180.148021748245895 -1497.367933162118788
-16.712551046287714 -158.712645070290137 -1447.598646781455727
-16.415342297798748 -165.671791421348672 -1471.001298579496734
-16.465400963779551 -178.715348524776005 -1516.234716685068634
-16.460759105370773 -170.495189900445297 -1490.226282614486081
-16.022232543214173 -182.975601299721063 -1444.099855093379347
-16.466992138295502 -170.426369488190716 -1485.267100865916973
-15.931215238479593 -183.952948900542196 -1448.841661678861101
-15.439342191528025 -180.629683534660444 -1532.832029946286866
-14.429478044234337 -161.172678501517510 -1410.212026683352633
-15.183535537599168 -174.245550732789667 -1424.045936286340293
-16.328387433748667 -181.548910568365926 -1491.690854148719382
-15.620499072016177 -179.887066852988966 -1531.761951611588529
-14.612758517711656 -167.439827667725041 -1415.655438140100387
-15.890009698532992 -184.174361533261589 -1457.027263986065009
-15.921977443322756 -183.235655554931327 -1474.545236839503332
-16.490569316206681 -169.016717815201332 -1479.859073144646572
-16.518764910241444 -178.046433126576062 -1517.612269702975482
-16.523195316610259 -164.617286357605252 -1467.038481838477537
-15.806824238424678 -183.878008962157566 -1469.578989438196913
-16.358794610777096 -181.129461301423731 -1493.848023428848364
-15.987314820813936 -183.438501963363962 -1445.636731281711263
-16.462652979583261 -170.647152461802733 -1486.279161322908976
-16.711644129415991 -162.769451240656934 -1460.691964175587600
-14.863035551511285 -172.215913241714787 -1422.382257462013968
-16.340883444031501 -181.354456565335710 -1492.822972534140717
-16.568828972771712 -179.292367378449057 -1502.156758424541522
-16.557429660836217 -164.252574140245457 -1466.191841137488836
-16.401907719352128 -157.213235359662775 -1434.750348472939550
-15.034892511919516 -173.497610406105821 -1423.486365521774815
-16.706470474811738 -158.455799719927256 -1445.979578020292138
-16.727480604186400 -161.132631406667429 -1455.592653596940636
-16.558310007839413 -157.614914462927231 -1440.035471495914180
-15.227968488465477 -157.126493295279261 -1421.968599900098070
-16.712651059864459 -161.369461632640110 -1456.547112573732420
-14.725644030800529 -175.119666800512022 -1533.815623130634776
-16.732559637936280 -160.698327977496689 -1454.390408134311429
-16.076550899422578 -182.386130564809605 -1477.619861117850860
-16.681944429358904 -162.908366370343941 -1461.790308771275704
-15.540986904701944 -176.340362799035347 -1530.420945063475529
-16.458126190354665 -170.548425019404533 -1487.430045754356797
-16.470364317946206 -169.501900594338110 -1482.017501622747432
-16.391777661609648 -165.862446976622437 -1472.117729947763337
-16.365318982727214 -179.197908143718962 -1515.831036336815714
-15.851777063254389 -183.597854767357603 -1473.371599810356429
-16.111407617835724 -176.683293211433124 -1525.508168433652372
-16.309793838799138 -181.937970464168870 -1481.395173177039624
-15.339328631100670 -175.011464416956045 -1424.657028887970455
-16.280739057544757 -182.001610397776773 -1485.757091156617889
-15.924064099993322 -184.378562681491417 -1454.585208418115599
-16.340724909558702 -179.418477032182039 -1514.521112744421771
-16.200996068554780 -181.986539529462164 -1480.179354306794039
-14.538647614844988 -159.952722248402836 -1412.303483230045003
-15.998596953837158 -179.429051966781373 -1528.321385687945622
-16.438836210952076 -157.139166902368800 -1435.733973616599769
-16.267577454297317 -182.198527793582087 -1487.655460830659194
-16.689981578594885 -161.580719255830928 -1457.652622774121710
-15.967064521209469 -178.446032533816265 -1429.267134973355269
-15.137679240155837 -157.090725660265775 -1421.004399610581231
-14.865591824368142 -175.938970084795926 -1534.038797320749154
-14.660054943697848 -158.703181596852431 -1414.766274663406875
-15.764647416820928 -184.341476568955756 -1466.827657149817696
-16.443667799816186 -179.304147665707603 -1510.245496729536626
-16.135495702233730 -157.177526506791594 -1430.363832875040998
-16.272106222599739 -182.050099826310941 -1484.581492799302623
-16.570643946537675 -163.764836238989403 -1465.521373726993488
-16.351177798328912 -169.354732731047392 -1509.950307877236810
-14.559956942750292 -168.049330409008320 -1417.029392372821576
-16.064635545721568 -181.819451055828296 -1439.454449864785829
-16.435914224746714 -170.282105312988364 -1489.308658343305524
-16.436608584799284 -170.018809424630689 -1484.092232377097389
-16.017101546521630 -182.858976601947859 -1443.165086101712632
-16.426797808161623 -169.437577798335099 -1506.726834664861826
-15.946547321656093 -179.995570297544759 -1528.168860572916628
-16.429009998894841 -170.135403266498116 -1491.258243637376381
-14.703575058284960 -170.636767152027289 -1420.892774366898038
-14.656313311422927 -165.672814687309398 -1412.390971002488868
-15.619416531676610 -175.759797121436435 -1424.410379941765541
-14.556629616792884 -159.678947176961856 -1412.823341087016843
-16.472157905404583 -157.190610430208466 -1437.419209858556314
-15.638534119394905 -156.954482407888207 -1425.693723130624448
-16.309333105820407 -182.112649091259868 -1482.555295104635434
-16.398471766956472 -166.515900089842035 -1474.586537170130669
-14.807523404928467 -157.955928086032884 -1417.200789023802827
-16.698052286249517 -159.053898174779789 -1450.960951134865354
-16.664773518135362 -161.771823068636706 -1458.751047110365107
-16.468262527476703 -166.993419489923525 -1476.603607394751862
-15.812094901034277 -184.705856970634727 -1464.686811811160396
-15.756049263142780 -184.030637236254648 -1470.827225994719356
-14.567181442823403 -168.585309884065737 -1418.146446907600193
-16.485077546912354 -179.941105877414458 -1499.142670468939968
-15.596741505775324 -170.380400010651044 -1521.976913728780573
-16.279784679104736 -179.364604846676968 -1523.534876440238349
-16.470839878890583 -164.270145002779799 -1468.177007285854870
-15.781809002370000 -183.999044113114735 -1472.232944910432707
-15.814874910875398 -184.469425461607358 -1457.966554371070060
-16.372378725433940 -165.935724590351924 -1473.453930584092632
-15.930809546354066 -183.282300111537751 -1475.678581734248382
-16.678730645231592 -158.536223711547564 -1448.771309073486464
-16.458442444950037 -167.360600560221314 -1477.603870973051471
-16.612231439171108 -157.762194811453668 -1443.861772674419399
-15.849840895780687 -184.546993311049448 -1451.932137668172118
-16.383453734226219 -179.002954731430179 -1517.093300413982661
-16.529440921393782 -169.982447018788065 -1501.372889094706807
-14.871159878243365 -172.725580574580334 -1423.195422342011625
-15.503593285648085 -170.532331021316082 -1522.949003225255410
-16.264533729068553 -179.704574802883627 -1510.960359608676981
-16.335015507254599 -179.199886048821071 -1522.589326660699726
-16.576085098811781 -163.160546622738423 -1464.575451029275428
-16.328101943163052 -176.695541063908479 -1523.107588209733194
-15.854384087943016 -184.606487407003641 -1452.985767711038307
-16.515663840102736 -179.308127750592547 -1508.185061713994173
-16.421450827994182 -164.377741246411716 -1469.359390422889192
-15.848998419585179 -179.470728518422391 -1529.761984634672899
-16.037320798809358 -179.943911431600924 -1432.950776569133268
-15.279588025523006 -180.558060159956796 -1533.916022055953135
-16.388553094836432 -164.682876902924619 -1470.652052249236021
-16.206221283610304 -182.295684466922609 -1490.538668279314606
-15.798220510213612 -184.797101168270927 -1465.763885909685769
-16.467722019573692 -170.230159533206347 -1494.754069981569273
-15.905283077743784 -183.875329999667315 -1446.866110567553051
-16.539851890673788 -170.142733728885247 -1498.992235377462521
-16.168972199660878 -169.377365356520102 -1513.572350628635149
-16.670076042181492 -158.585103107217066 -1449.706899875121053
-16.620140682650746 -162.647813502038076 -1462.959973709636870
-14.349670198438798 -162.371263641990453 -1409.560755374428936
-14.583120103348445 -166.460617573346440 -1414.330133387763681
-16.492803132899109 -170.156583026210257 -1496.279029853937345
-16.706521138922223 -159.623142412577380 -1453.442376007980783
-16.198930316077732 -182.540271283503245 -1486.507791092114530
-14.617569801355215 -165.742953378559406 -1412.966560686346384
-16.074587909457044 -182.660859664319787 -1478.842677189853930
-15.733580135735096 -184.433584529235333 -1468.810279332018581
-16.439284855744649 -168.005425185298947 -1479.215160874279945
-15.490321415803185 -156.655282249934942 -1424.727301359020885
-16.250885344650360 -182.520745254787670 -1483.642137333505161
-16.513456919424375 -179.475526475418860 -1505.463959003340733
-15.826462750466742 -184.572913737423733 -1450.714906182341338
-15.773132372793476 -184.739026186410740 -1460.162562575471611
-14.522885904989950 -164.461340229693633 -1411.364176967696721
-16.520391916703087 -179.584030485418992 -1503.008346666664465
-15.770636541740975 -184.709654923444219 -1459.139518078864967
-14.596713461458121 -166.004482872259416 -1413.599185344520720
-16.373896813286116 -169.769811141570869 -1488.403262757842640
-14.572963656406532 -164.877022929541909 -1411.848641211494851
-14.563982922819772 -168.927595518099821 -1419.050882335107190
-15.503131255139493 -175.832827952717452 -1425.338007354294859
-16.477972660210810 -178.603189567193340 -1518.105750207003894
-16.398718995108123 -169.054765965080804 -1482.850148290505558
-16.097702829529130 -182.640143662437254 -1479.728010889796906
-16.497963936552789 -177.756119414005298 -1520.060208191008542
-16.148856845330247 -182.838303023765349 -1488.370981457256221
-15.082361101505642 -174.397822970342304 -1424.889596238748254
-16.665016818770663 -161.923767369281649 -1461.722962245270537
-16.213584322639125 -182.007348578212884 -1492.486887682431188
-14.525802306152045 -167.429429382062381 -1416.333814842667834
-16.643094440740647 -157.713563197718997 -1445.173845074112933
-16.004447321439503 -182.340702366180096 -1440.917760129874750
-15.703529063441378 -184.659534685804175 -1467.844727972773626
-14.588515639937828 -169.687959215362213 -1420.212173244237192
-15.746586093778184 -184.992953879442354 -1463.613840456906701
-16.496461933482991 -178.213907088343461 -1519.170145915404419
-16.676903961572101 -161.729263472588826 -1460.922110619635077
-16.340425965439135 -164.680953100224230 -1471.695348160264984
-15.750823315642860 -184.927474744673333 -1461.471597331891871
-16.161059237204864 -182.753672749392706 -1485.628288724254162
-16.685079056589228 -160.139388823350373 -1455.112139706368225
-16.263098294736487 -169.189091971018456 -1510.951279415100544
-16.414439389044510 -166.140213790392238 -1475.732095236994383
-15.743768791329494 -184.999157613997909 -1462.550649488208364
-14.340156997384994 -161.764150119676287 -1409.573455768542999
-14.679576085525806 -158.153287144503679 -1415.903588906489176
-16.219941564678507 -181.880133410947792 -1493.359025445667839
-16.492533178452380 -163.340963092224769 -1466.692142222594612
-14.674513976267525 -171.090353854132275 -1422.039955997989637
-14.475074282486865 -159.997623614319934 -1411.817289669043475
-16.479106012091918 -169.780685365879378 -1499.950460629822828
-16.667615639020074 -158.887831107596554 -1452.221146239578047
-16.325832107633772 -165.039829444496405 -1472.769549600754772
-16.207572143880544 -169.197027519630296 -1512.226021865822759
-15.350479560467811 -156.550139087327977 -1423.682677099602415
-15.826914432536309 -184.464964992070378 -1449.465764453022302
-14.604044804160401 -175.225110955171800 -1534.340597975149876
-16.137865514652052 -182.954235522934283 -1487.250833900883435
-16.346134065245547 -180.960995278984058 -1496.569353867657128
-16.596452931912218 -157.165222994958896 -1442.364177799560139
-16.350314148122067 -169.619176791560818 -1487.106145278536133
-14.286566813209479 -161.702631850520930 -1409.220315371549759
-16.158419479329602 -182.403801467465541 -1491.468626388534631
-16.491166897617202 -179.630398362263321 -1504.544362828881276
-16.114019950053688 -182.881470595720657 -1489.580847627417143
-16.450754185433823 -169.820877568605312 -1497.561177998691846
-14.717560442622085 -171.859201944909557 -1422.954361829628851
-16.038785184117131 -180.580755247107362 -1434.552747793527715
-15.348985984594975 -170.779491243422058 -1524.453161325817291
-15.808555273671297 -184.071108575741306 -1474.740044904433944
-16.037629986591984 -180.868345223542690 -1435.464758881926400
-16.525250018801277 -162.811498232675348 -1465.396374902160915
-16.644891355411467 -160.596732265329109 -1457.515777391362690
-16.268988722966995 -181.456253458287392 -1495.299189741190048
-16.039334224608140 -181.165848158417731 -1436.372944234025681
-16.604996985302662 -161.256120805088358 -1460.038266587847829
-14.833619164183879 -173.523507448281038 -1531.414762192342096
-15.716440914463005 -184.488752769469841 -1472.808744860634761
-15.149941355256741 -176.565870002873538 -1533.119872932355293
-16.336678528877268 -169.355016679522635 -1485.663195593962200
-16.199349938956161 -176.837570459230392 -1524.597091664418031
-16.416569502982746 -169.511056431696716 -1502.271472493182046
-16.093571446706001 -182.862269151716845 -1480.868681758775892
-15.956157761402562 -183.345472459747384 -1477.441685427645552
-16.342136440600321 -169.547282709392704 -1492.452008386103671
-16.541570706317767 -156.804857532832841 -1439.234620770592755
-16.363610881230244 -169.649165591182964 -1493.495320325626381
-14.709596069844359 -173.965103063931394 -1532.566424858363689
-16.344470512180070 -169.032450738431862 -1484.372064596333075
-16.447453639665316 -179.625353430892517 -1506.280772071782167
-15.155004155928948 -174.959717874973023 -1425.604057933090417
-15.153148793238952 -180.758458478670605 -1534.393527301601807
-16.250012888452549 -180.240873896070639 -1510.422494235892145
-16.276697897838975 -179.825393066930843 -1509.191696677365599
-14.324060353985134 -161.152218148165048 -1409.596862579761819
-16.562952244885562 -156.941220480540778 -1440.932151769323582
-16.394555028982587 -178.986793464410596 -1519.290466704750088
-16.403465989945609 -163.393298356664815 -1468.601185919489581
-15.707696028812979 -169.872973804989670 -1520.231798871325054
-14.542133237888359 -159.071693259927343 -1413.477820041791347
-16.436314916751741 -163.212796737635983 -1467.643254060137224
-16.347698830516173 -169.180706302293004 -1504.256496714000150
-16.061004355034278 -179.112567867122124 -1527.435063858916919
-15.826795808943254 -176.903609955141491 -1528.249309388833126
-15.075755898583679 -171.998876000721225 -1528.071130823559542
-16.643947854332819 -160.145642686468307 -1456.250441114533260
-16.102256262938695 -182.996670703282462 -1481.754076422724893
-16.381310791102731 -168.093712630938171 -1480.837314394346095
-16.608482396942648 -160.747289861704161 -1458.982174619911575
-16.450130229776601 -179.971862752136559 -1501.164102761041931
-16.607132127833168 -157.835301107322323 -1447.935123798545646
-15.796398634778564 -185.020983596977061 -1455.097676297720454
-15.719319976109452 -179.369410190385764 -1530.904426503728928
-16.361277725195265 -179.277469245128628 -1518.258376269899145
-16.299470626435369 -169.248573119277381 -1490.279856563713338
-15.925730426057013 -176.858835455478697 -1527.142052872750810
-15.628588621657359 -184.831492932571365 -1469.936476180950422
-16.367429366326711 -168.349658989428121 -1481.864500248176910
-16.161244638016857 -183.042195731635161 -1482.738817732841881
-16.371667907341571 -165.360477005756081 -1474.486790749200964
-16.448409024183078 -156.545445576773432 -1436.677570822519556
-16.195945782392386 -181.909933411696329 -1494.432791564465333
-15.723489404576823 -184.509541211595462 -1473.743461394220731
-15.890835815220202 -178.091682156875407 -1427.641825489041139
-16.336969791246627 -163.510556932629271 -1469.734400893054044
-16.016438938912852 -181.571420064960250 -1437.409872318422913
-16.188434901353741 -156.629357887084211 -1432.088109898386620
-16.167274617828575 -178.804707859163955 -1526.032065131583749
-16.493020402505898 -156.578760668707901 -1438.101392786910992
-16.445226177234883 -177.712667245350389 -1521.257652537266949
-15.506929731727716 -176.882478784716852 -1531.158898645107229
-15.656837030520800 -176.819389054217169 -1529.642582470168463
-15.720326578114619 -185.081863839540347 -1456.560670618254335
-16.464516966914641 -178.106344543133019 -1520.588878165543974
-16.628589402616036 -157.628193322724627 -1447.064643094721760
-16.288102924899452 -169.158338677142893 -1491.251331229300376
-16.239121770593378 -178.584335221430820 -1525.080594120942351
-15.280950319671902 -176.755664373506619 -1532.521251782596892
-16.387797100895689 -177.219690031283648 -1522.119748225858530
-15.622395685288572 -184.886975557248093 -1471.241689301543829
-16.618242495976290 -158.197246059211494 -1451.152078386523499
-16.111680899565929 -183.235438034852507 -1484.608569196567714
-16.405838916235677 -180.276459629378337 -1500.142651218759966
-16.442549417127935 -178.638600817163336 -1520.513768198519074
-14.640927540059003 -176.032358270271544 -1534.890798463585270
-15.410118720912164 -179.847507176512522 -1533.127033843428308
-15.761757814943541 -185.074150072180629 -1453.930121221260606
-15.669836120702932 -156.457987669197593 -1426.767975790913624
-15.714694984729171 -185.355837896877063 -1466.839309921800577
-15.977097500174155 -169.312669886514755 -1516.338941453349662
-16.282988704179726 -177.252148048369406 -1524.017816832346625
-16.301238163338382 -168.998314085555762 -1505.405689668982404
-15.857834903097650 -183.975962711650396 -1476.521065117653507
-16.350864220585141 -180.760052671455071 -1498.330151119564107
-15.785854905215892 -156.511012998527349 -1427.849356976399122
-16.337572183511483 -179.245970176618329 -1521.123723875222822
-14.514075304312472 -164.876750686172102 -1412.447168951052163
-14.521521847721710 -165.365716011994095 -1413.264533880486397
-15.014903745143316 -176.628743888686273 -1533.811145933701255
-16.058982508369976 -177.228962816679569 -1526.305113815363256
-16.292637700526658 -178.861018315516048 -1523.970751081621529
-14.538123949850316 -158.708995828241314 -1414.071673492410810
-16.296638501410079 -179.929941248428264 -1512.316948470338502
-16.125594069142924 -178.625328596015862 -1526.887839245224768
-16.184551076981844 -180.365024597423456 -1511.018901113288166
-16.283849967462110 -179.923328117063960 -1513.375221900831093
-16.030523801419093 -178.779386026780429 -1527.996413578942338
-16.115291097036206 -183.327604373796021 -1483.473474141601173
-16.308437225613218 -178.386205272248958 -1524.091924848993585
-16.352903058782143 -178.368241950354019 -1523.184220787812365
-16.259303499646151 -168.988631549730400 -1489.379973379685680
-16.348498382171389 -179.875924579792809 -1507.140822343130139
-14.406431356300017 -166.298996327921657 -1415.067533412570810
-15.672021603591910 -185.241806157691826 -1459.678981704537136
-16.152789551967960 -180.258477145730808 -1508.947911298241024
-16.179421572424598 -178.060740417926127 -1525.965487987828965
-15.247492112606258 -175.671335949805922 -1426.438753645787529
-14.447469299106288 -168.838881332963126 -1419.819891905378654
-16.304786006405138 -177.894348896862823 -1524.199397029942929
-16.352431587250255 -166.026350995852425 -1477.780297364582566
-14.840688517507408 -173.593820222277770 -1424.942626688214204
-15.943034663687142 -183.599632001595410 -1478.683803355346072
-16.414564088412359 -178.368106956767946 -1521.617207580958848
-15.589242544733839 -176.603681053106754 -1426.388243035326923
-16.011390608922387 -183.569830606145786 -1486.462304224017771
-16.244515103079998 -168.857658233201477 -1508.297121943655384
-15.025911180631631 -180.946696440987836 -1534.833023124921738
-15.645447012507526 -185.608406079661563 -1464.412856535761193
-15.400589186866696 -176.943676952197592 -1531.880236351229996
-14.976980760857677 -172.191869307859747 -1528.864195495821377
-14.405982221675973 -167.361831137862993 -1417.383807109743884
-16.337747856466006 -165.566753139428926 -1476.702520702513766
-14.427148161516076 -164.201989080140123 -1411.813249000078713
-16.401004571987265 -178.000497089293162 -1522.224413991019674
-14.368804946355120 -163.701605982432653 -1411.217065728433909
-16.612239702198618 -159.027568774201796 -1454.733956575239290
-14.729919354115586 -172.803638908317708 -1424.455899721583364
-15.641640273972634 -177.267372620311818 -1530.375487048343757
-14.549766895932244 -171.193901227594523 -1423.059415698605335
-15.646098259967017 -185.349203374945688 -1457.519569614775264
-15.707272290968552 -185.152071995484221 -1452.577108291797458
-16.046399768719937 -182.937198032921202 -1492.178080134149468
-16.336422034322677 -164.420424882970281 -1473.983247132342967
-16.206017771253869 -177.640090972145799 -1525.144282855009578
-16.006377408056363 -183.632949266646079 -1485.531590248512885
-16.264153421635278 -168.410421646596575 -1485.020937127617572
-16.335638546593614 -166.420467590702970 -1478.793117594390196
-15.491995420209916 -179.577089534685769 -1532.380345361124000
-16.324630404829019 -163.870652969395167 -1472.378970820461518
-15.639289611967753 -185.633188297656034 -1465.415502626123953
-15.679133643662878 -185.448551659346350 -1467.993731383550767
-16.327117479080549 -179.517614924172193 -1516.516383292253295
-16.393831798275443 -180.225790981129308 -1502.110382415021832
-15.639352486173713 -185.377244872472602 -1458.487477982672999
-14.381576420936224 -166.599553759455148 -1415.897511115479119
-16.332979517501059 -167.111070717399116 -1480.114609419360704
-15.911735150113964 -156.404067847509737 -1429.280089192761352
-14.465403183916585 -169.824320227942309 -1421.450979176437386
-16.346381498841392 -163.209491052624685 -1470.873783917791798
-15.904353703441208 -179.091941450655838 -1528.954566406870981
-16.340247291155475 -177.513825601328620 -1523.171943751917524
-16.567038923898473 -157.448775108976349 -1448.894515553832434
-14.916135773916766 -174.306326139664066 -1425.779308648551023
-16.639999892314858 -156.960877709760240 -1445.885342468302497
-15.943045588650145 -183.669771296046093 -1479.555367112049680
-16.617056477253740 -156.786105592173499 -1444.848581555616647
-16.156243915961873 -180.642084652184025 -1508.827192069223429
-16.269423805550932 -168.159047476807331 -1483.852609359414373
-15.984709819243967 -183.425792874951668 -1490.710135175002733
-16.053661306192041 -182.750811338546555 -1493.184871783408880
-14.607183482360261 -171.963979419956843 -1423.976231930803806
-16.279563081110435 -168.960711652054499 -1502.970339233316508
-16.578066142597034 -160.763102478341665 -1461.464556548761493
-15.614719723785772 -185.663627806354441 -1463.064023939733488
-16.560854985840709 -160.934266032530616 -1462.739124161231530
-16.529969674304926 -156.498605286098723 -1441.777081923512469
-15.862232369170883 -177.560540916144504 -1426.467354222187168
-15.617457412716544 -185.604682494474758 -1461.955825431447920
-14.196810297714054 -161.052031188421012 -1409.093789777311940
-14.436486494197947 -175.294324051532811 -1534.943699661806704
-15.876246946569060 -169.269320189256348 -1517.359264361262831
-16.377462707324273 -180.154704253044770 -1503.569856256685853
-16.274746469421036 -156.215153138843732 -1433.763192400174376
-15.851973966678894 -184.117812168142990 -1477.721921509119056
-16.262242260463282 -168.938621690160147 -1496.117692569192286
-16.221910137920393 -168.747978600279623 -1507.351800224833141
-16.209678780680239 -168.577816236020709 -1488.230557456700581
-16.360175710379316 -156.129432032762338 -1435.238524554547666
-16.482219374323222 -161.443578672614080 -1464.439608807436571
-16.576302903200531 -160.481041529883868 -1460.831375024380577
-16.045577724479482 -177.756199053918664 -1527.070860078619717
-15.846465825584632 -183.754657109799950 -1444.445088771478822
-15.955546221631078 -183.751913744276436 -1489.366826997912540
-15.074037845361250 -171.280726670071317 -1526.925879173183603
-16.163598317706928 -180.239643675413276 -1507.731961801942361
-16.107130853251245 -182.249613765758227 -1495.151002689616462
-16.355481892281631 -162.577427255069551 -1469.393076963877547
-16.523412688923173 -156.296006650342520 -1440.304702411644257
-16.088995490210699 -179.781744329831611 -1525.125167277689570
-15.768488184109113 -177.484576646267726 -1529.213938003348176
-16.230883273468621 -168.886973443661532 -1494.151399043926403
-15.613564203188833 -185.587971568914668 -1460.684108287581694
-14.413033249919270 -169.043570617563915 -1420.555820949670988
-16.065618830788971 -182.517788621935011 -1494.410907052858875
-15.966101238974838 -178.133278059132493 -1528.204694620622149
-15.947663196580200 -183.921365313332871 -1487.712969559678868
-16.571113422213383 -158.981359600648233 -1455.613485108344548
-16.302811486093447 -167.184809060459514 -1480.960250375987471
-16.573374758496115 -158.326466193910278 -1453.699193905016273
-14.380335164627267 -160.189713324684561 -1410.851811364029572
-14.839846210484433 -176.666665024014833 -1534.512341857709998
-16.096375552407302 -156.274989816702060 -1431.359512259727353
-15.581769646300632 -179.277355282422235 -1531.680148535391481
-16.540915956105643 -159.597782255535151 -1458.257895913878656
-14.980008770653688 -174.878177693980859 -1426.462443352843366
-16.259250154310916 -167.728473826544388 -1483.087864944376861
-15.931002844496840 -183.820617435314745 -1480.676064017902945
-16.555948437646542 -159.195870370506867 -1456.739750421754025
-15.651999335923223 -185.009238050331618 -1474.658903509706306
-16.203960316068976 -168.205715111111829 -1486.576380712128412
-15.589307219890349 -185.677635680940682 -1469.182148858327082
-16.256560061728859 -168.885626336046244 -1498.250490364132702
-16.293254430169597 -164.561262676348491 -1475.442562188765805
-16.138790764922529 -182.026102568243260 -1496.073424457163128
-15.890421740135768 -177.468392598862266 -1528.027804877380277
-16.218395175031254 -168.792028339143798 -1495.063902057756422
-16.283511207590553 -181.011832380288581 -1499.165160326868090
-15.505488957392817 -185.601154456594230 -1470.373748256167346
-15.146540092808532 -170.826667964451133 -1525.719291557532870
-15.299829273739686 -176.287370569418925 -1427.291563519204146
-14.349322024744783 -165.412957621237467 -1414.127642484677381
-16.510357670336088 -159.994617088396950 -1460.184494799520962
-15.766391719289553 -184.575378485262036 -1476.825017096300598
-14.468573642674327 -174.242416424346487 -1533.856883193300064
-14.399269312158294 -164.570267672896193 -1412.782310066849959
-15.923278174239147 -183.882931691203225 -1481.989901574294890
-15.969749203475256 -183.972873546618672 -1483.496978529762600
-16.395355629121973 -161.650527620558165 -1466.085498912820412
-16.372843614879496 -162.126376087101136 -1468.555349884214820
-15.160382723337820 -181.203295125732780 -1533.402949047291031
-16.267786959395526 -167.317834311943670 -1482.026090019089452
-16.358775909116837 -161.887345424960614 -1467.487134435348935
-16.156041460341264 -168.319737523736478 -1490.763236132526117
-16.256112205949925 -180.193497080911897 -1505.943512631887870
-16.225967097531758 -168.758581660190146 -1497.157263479270114
-15.780154630221077 -169.276117007469423 -1518.217028320261079
-15.703824327347725 -184.865295041569823 -1475.985775716712396
-16.320480269765088 -180.667670972158390 -1501.194423808905412
-16.236848114464372 -168.783152588989878 -1499.415781770770309
-15.663365910057756 -185.553856020466867 -1454.703515491324197
-14.298969116664130 -160.627909654259810 -1409.851685260557588
-15.702149796718119 -184.720325670235241 -1448.420216137791840
-16.541551666620151 -157.352346983230490 -1450.927780918745384
-15.605695027615274 -177.082765243402548 -1427.293322775733941
-14.531029447515429 -173.809032890999049 -1533.113901827732207
-15.926276589420505 -182.115698369189744 -1438.315775798685991
-14.355459959984072 -167.376088869495248 -1418.266865576035343
-15.038110511178184 -181.295531929821948 -1534.083547833525472
-15.904406785406056 -183.617542166995520 -1491.724074091540388
-16.110841246084540 -180.891734187607426 -1507.699243061826110
-15.847801042168788 -178.536303753477227 -1529.413302858396264
-16.529297643135795 -157.738516716935777 -1452.509810631809387
-14.349913283700069 -166.722624143903573 -1416.859984852820162
-16.533863484039838 -157.121428674932531 -1449.820471354773645
-14.753990654496855 -156.790556153367390 -1418.952908816306035
-15.410146405284420 -155.932828157686828 -1425.563067084771092
-16.166404530459065 -180.376761826753437 -1506.630243861903182
-16.137523202134666 -168.278572578279210 -1491.835473669568273
-16.459988499678630 -155.997392956219784 -1439.188818124720683
-15.549797963960767 -185.446213779406548 -1473.317911972590082
-16.271559166243552 -165.118751049341654 -1477.676948797159412
-15.160493136463902 -179.765041314440822 -1534.230390802352531
-16.640284018427511 -156.611960167411411 -1446.847464127951071
-14.352052736851993 -167.847561067806765 -1419.248605671782343
-16.193910454737075 -167.650862482336066 -1484.582112526010405
-16.486083770100915 -159.478714206976775 -1459.293060901893568
-14.740993505329776 -172.750987887920331 -1530.815149328673897
-16.267417234825150 -166.016863352830399 -1479.590049198351153
-15.432163155734830 -177.757195709970773 -1532.178087956646095
-15.706721950749513 -177.744236085197372 -1428.141436479046206
-16.575506985692822 -156.717372316853755 -1447.938889147477994
-16.204523791853578 -168.649583760165541 -1500.287832115750234
-14.330395616643179 -160.353354404713713 -1410.348039217130690
-15.022338432764982 -180.113963347947049 -1534.867227557470414
-15.291726719094649 -177.500249872980874 -1532.897293978442576
-16.241783690956172 -180.362791706938282 -1505.063672775291707
-15.701310470100998 -178.138963844278521 -1530.257746707596425
-16.126428395673003 -168.337746448027673 -1493.089521150953942
-14.399087595526153 -170.071266091871934 -1422.728687117435584
-15.845033278650515 -183.202449792943042 -1441.843388378675854
-14.719922067232089 -173.557608483439708 -1425.906846592361717
-15.735697533794271 -178.923228447750063 -1530.375283000210857
-15.450840245921915 -180.813936745431903 -1530.945726695807934
-15.538788941396104 -185.936515814097874 -1459.486450424116128
-15.575540720427828 -186.059631345335532 -1467.924049691397158
-16.133182061425455 -180.713743642052094 -1507.055755635791002
-16.051985759812364 -168.590862904779414 -1511.489296931943954
-15.906702384378052 -179.747667622930010 -1431.429749739437739
-15.798690331556184 -184.468344003002812 -1478.806911180269026
-15.574184350498264 -177.909952206147523 -1531.183054531853031
-16.236273077343871 -179.443268816579689 -1521.937667932196973
-15.476281720177958 -185.744948212783868 -1472.036523595478911
-15.642752586497977 -178.600790422031054 -1530.986135232309380
-16.179484094329062 -168.572894120470181 -1501.469962581263871
-15.231473898892705 -170.145175791320185 -1523.832948124190352
-14.445666197474775 -171.369989611153130 -1424.442881418281559
-15.432996912214508 -178.657063147270122 -1532.409076884971455
-16.074706703694087 -168.494081047328365 -1510.122535370971491
-16.516777768016581 -156.085468678674602 -1443.425257910974324
-15.735830486754219 -184.767328840336347 -1477.684960537638062
-15.526168288280754 -178.407180390947872 -1531.694272566003065
-15.890409514694998 -184.503493251791866 -1485.689398724984812
-16.237041031007784 -163.712479247822245 -1474.897421366941444
-14.784410231764104 -172.300821097588312 -1529.968857601903892
-15.812474603675787 -184.039987484189027 -1491.009663638589700
-16.233772352897109 -180.533670798860186 -1504.162260272487856
-15.513259730607651 -186.082061691459728 -1461.443688119645003
-15.902485695944621 -178.525337370767261 -1428.348241285819768
-14.913477380344293 -175.132469602259391 -1427.325045588604326
-16.139952601851064 -167.456655810523699 -1485.542413916925170
-14.811617004431026 -181.161536688800368 -1535.448635692195012
-16.487280471394769 -155.859661552715409 -1441.200852546682427
-14.305058410881212 -165.997671154459169 -1415.872682129434679
-15.842500471525687 -183.697864592992062 -1492.652041328282849
-15.819500798419421 -184.406783408592332 -1482.835301711864076
-15.476825180546276 -186.069527118701814 -1470.944620061731712
-15.863876276492290 -182.852132384310892 -1440.274323872498826
-15.629331071471903 -180.517174020859244 -1529.607832811558865
-16.234673304904511 -181.140141841870133 -1500.490068828168887
-16.261301646932665 -162.514290869905579 -1471.721116232937447
-15.865357401164442 -184.515440188370434 -1484.223977994678307
-16.247323208966449 -180.740167368087526 -1502.963681288087855
-16.232113199417540 -163.005706488908174 -1473.310733954965826
-16.492887631113099 -159.706889666642581 -1461.611885855529636
-16.318743991990441 -155.666611091492285 -1435.886204927934159
-15.468694167697194 -169.578177869336912 -1521.075984388085317
-15.805312634915838 -184.471327429268200 -1488.371314499291202
-16.139563476469970 -181.881001185947753 -1497.978069322511601
-16.064645825444291 -181.177418790871457 -1506.435637402610155
-14.231014759942468 -160.588765758423023 -1409.524905210051884
-15.793755541951681 -184.544085813659677 -1480.015930000075969
-15.549057371979595 -186.050230606793036 -1457.172438479368566
-16.067959312738616 -167.739240632319166 -1489.751162341897498
-15.473769134854022 -186.306561450054687 -1463.630910025322464
-14.665884717341079 -156.877758893546115 -1418.096569058155865
-15.851453996767182 -184.568611625088806 -1486.981044030771727
-14.257013620224138 -163.419578064059607 -1411.736723087517021
-16.094203291315520 -167.515914611235104 -1487.760958853549255
-15.224431072261039 -179.377573473194531 -1533.711502996696026
-14.353414367234096 -169.355225490332799 -1422.119513339048353
-16.399826883311281 -160.265320224272187 -1463.974887412180351
-16.274663960009804 -179.727193173934097 -1515.209346146036751
-14.371580337900911 -170.418090066921849 -1423.732784672857633
-16.463327705821658 -158.495655317357688 -1457.731833003684869
-15.175263067157417 -177.718630671067700 -1533.701689011286135
-15.409256178134088 -177.152412465779406 -1428.321936995739634
-15.938575303869042 -180.076845440627636 -1526.491763030679749
-14.455436564944915 -171.886978277565049 -1425.249350849075427
-15.762784613119665 -184.419793792808690 -1489.548639678336485
-16.481443016328925 -157.953776580006064 -1455.592118893623592
-14.315382036644785 -168.232896900769560 -1420.428393181323827
-16.082547863824907 -182.446469317721608 -1496.885680859151080
-15.568822500413576 -185.562569563053216 -1451.477409197210136
-16.202034542504265 -166.143178723308438 -1481.318887099925178
-16.336787556635368 -155.582638294033643 -1436.977382948365175
-14.747309804471978 -174.270052043360010 -1426.961412023815228
-16.479334378680036 -157.623212838068554 -1454.406469207450073
-15.904182625537757 -183.494736644665750 -1494.257418238997843
-16.166435990907765 -181.611219199840605 -1499.341995163807269
-14.554196889575906 -172.833838612165295 -1426.028531777516491
-15.586186112492390 -185.338241320389074 -1450.033437131959317
-16.138573298636569 -166.917030590773038 -1484.029403643307433
-14.247480997447436 -175.573824250637358 -1535.625197363120378
-15.564926181247161 -186.028360036053868 -1455.879893403259075
-16.399897453468359 -160.764423619309952 -1466.637152449776750
-16.128225773386099 -180.784404006805431 -1505.875116056752631
-14.229982075700301 -163.012490437940244 -1410.704945645328962
-15.970746027640821 -183.065482861972413 -1495.630190721208919
-14.225849620428525 -163.140463950992171 -1411.230914764676072
-15.082033682141017 -176.217460179211713 -1428.256317912110489
-16.481559213577633 -155.730547008324720 -1442.449794970506446
-15.917402565170370 -179.046439914453487 -1429.470654058630998
-14.085581790875350 -161.379234566413402 -1408.702097908910673
-14.260836731334059 -163.699028893334315 -1412.308362469528902
-15.294252134461408 -178.502394202194864 -1533.232273500851761
-14.398087349022799 -176.381852247798776 -1535.758179933575093
-15.603024309689653 -185.401936031829280 -1476.500793959419980
-16.316164485897751 -161.390644812489199 -1469.186628383773495
-15.468806049993914 -186.304694535679999 -1460.174439904455539
-15.671039940929473 -184.548991018746477 -1446.087278723273130
-15.769747772311057 -184.660697402389758 -1481.091946679525108
-14.250993986694404 -164.490627109170845 -1413.545947988401622
-16.198444164705013 -165.003692341042580 -1479.064618823401815
-16.274897493907872 -161.691516593072436 -1470.237228433275504
-15.308231657402745 -179.117528200967485 -1533.060405325560396
-14.605745094078179 -157.050648008599296 -1417.171589269344167
-14.316089352398125 -168.619108176258635 -1421.262195343099393
-16.205201881093448 -155.579174237122004 -1434.229344151555324
-15.483184054061788 -186.361648297468747 -1469.994291542519250
-15.515199996881558 -185.741853427516020 -1475.156890755267113
-14.460208455807432 -157.918587597654863 -1414.634073535105244
-16.422761931215515 -160.213167799791961 -1465.241838646879614
-15.972309624239998 -181.553194929760792 -1505.273098598625211
-16.187282737259888 -163.850374345843733 -1476.559329616002515
-15.786368105623607 -155.619547277723854 -1428.790966064181930
-16.551524891806498 -155.998170666408015 -1446.115705882672501
-16.195717971789737 -162.868129296433040 -1474.344376728820635
-15.661748474249270 -155.573833212566427 -1427.830266320749161
-15.912130791384932 -155.672068820844913 -1430.124502437909314
-15.462355566671576 -185.999019127481830 -1474.091991729861093
-15.487837863473770 -186.303842664046641 -1458.056964101214362
-14.324081974549662 -159.664763652934312 -1411.093310154728442
-15.458896093524791 -186.514905030027222 -1467.234810012595290
-14.861436713554689 -181.522114673139100 -1534.552774771919076
-15.999734614300946 -167.401676329507495 -1490.873126035171936
-16.098059280215374 -155.617456042679720 -1432.556823925056733
-15.415800496503483 -186.595586325628830 -1464.362387395613951
-16.068666629507891 -168.089680855991645 -1503.403931528935118
-15.090213382508720 -155.674921360384843 -1423.431228114341593
-16.279864751288208 -179.401377329356393 -1520.064070831240542
-16.501024735924872 -155.780119422341670 -1444.561569041311714
-16.016096005321046 -167.856726917199182 -1495.907223947990360
-16.424942356389472 -158.419910936967568 -1458.991547157465675
-15.682315275563731 -184.422962329650261 -1445.269272312005796
-16.109544188558147 -180.975471752720154 -1504.827088991556138
-15.871215204842102 -168.561607208568546 -1514.589805553745919
-16.362747525011940 -155.429291856776558 -1438.557964649269479
-16.170920783661920 -164.091435628420811 -1477.491933949019767
-14.897496164248894 -156.057486103302182 -1422.035786073360441
-15.012280203874004 -177.700047409943011 -1534.387262257278280
-14.185626378213685 -174.759228717200500 -1535.171261978956181
-15.901359910140755 -168.388777353339123 -1513.184624248927548
-14.549688783461104 -157.225633199994036 -1416.289282372488515
-16.145548629869214 -181.449087294874602 -1501.525542602197220
-14.759981459247610 -156.247368329948927 -1419.882520793387812
-15.406129601420744 -186.565989304845942 -1462.215872279515679
-15.421797042715307 -186.525093825338985 -1461.021914928373462
-16.172264044008315 -180.210522624150428 -1512.620560540426595
-16.115580338189211 -166.229407192016509 -1483.081117826134459
-14.216511758512382 -164.895366896017265 -1414.549288500335933
-14.498473870298479 -172.978347139827662 -1532.205880480271389
-16.314854438075511 -160.851023339203010 -1468.297797842892123
-16.001883895027042 -167.108692096502864 -1488.553442083348045
-16.156173505360169 -165.224601882015833 -1480.367194540742275
-15.148168715802905 -155.580431033570790 -1424.420424173235233
-14.548244569469713 -173.350310296996696 -1426.908059534782524
-14.629265295814630 -176.987126019497964 -1535.318340909885592
-16.105993147065831 -181.164743475009715 -1503.564107091693359
-15.144479497784895 -178.556061446047721 -1534.015715438845973
-16.477140788230802 -158.796895260133482 -1460.851271428731934
-15.726523275291854 -184.429307068965983 -1492.145986819214386
-14.140640403833869 -160.449281620156000 -1409.140401203833790
-15.621457616275300 -185.345988317081492 -1478.151095858757571
-16.068658027408990 -179.756395065591420 -1524.269798207836175
-16.026532452288514 -181.226617665266019 -1505.229643224134861
-15.962429337678065 -167.612967021805730 -1494.444058099267750
-14.688123146009696 -180.645004737212844 -1535.839819098989892
-15.991138471990325 -179.771989957697770 -1430.275135924000779
-16.047168068395962 -166.685736642254994 -1485.230981802553288
-15.703218229555475 -184.976510568395639 -1481.888473642339250
-16.426477029806456 -158.469018294753056 -1459.924562705103426
-14.251655368553061 -166.846148414116982 -1418.793680578827207
-15.760543715973519 -180.384503020997698 -1527.767859169960730
-14.329127898605551 -170.952630949890278 -1425.253920679327393
-16.503061549615694 -156.462012521252120 -1451.573390429215351
-15.500771180530519 -185.958044192911444 -1452.919309738901120
-13.940097781844640 -161.322567318644332 -1408.126847502322562
-15.959675464388281 -168.075987725686474 -1509.147007510812728
-14.062500766602904 -160.786898865401639 -1408.771811412450916
-14.848464362833919 -175.633803812524690 -1428.591801754764674
-16.491643272084666 -155.907237244855310 -1447.755387120093019
-15.559941563866916 -185.613258728725071 -1477.252486666223149
-14.310751977694098 -158.946012300870507 -1412.206111676236333
-15.759543479517491 -185.150585731275697 -1485.613495028580019
-16.141501898719234 -164.227268249266103 -1478.532962071562451
